ply
format ascii 1.0
element vertex 1256
property float x
property float y
property float z
property uchar red
property uchar green
property uchar blue
end_header
22.7938 29.6622 -67.5652  255 255 255
-31.4488 -52.3195 29.0213  255 255 255
18.1579 34.9034 -72.6404  255 255 255
-34.9442 1.8804 -32.1378  255 255 255
-23.9104 13.4854 -45.3629  255 255 255
33.7115 75.7907 -81.4785  255 255 255
17.5 15.3793 -50.1681  255 255 255
30.5075 65.6747 -86.3249  255 255 255
-36.7933 -51.0045 27.827  255 255 255
5.7977 -58.1084 33.008  255 255 255
-15.9812 -26.8964 34.7784  255 255 255
-49.5241 -3.03776 -26.0206  255 255 255
0.791035 46.7823 -79.1581  255 255 255
38.1183 -34.5512 3.40639  255 255 255
49.0704 55.2162 -99.5287  255 255 255
0.321705 41.0485 -79.1734  255 255 255
-55.112 28.2227 -48.7886  255 255 255
42.6193 -47.4345 18.0458  255 255 255
50.1117 12.6314 -38.6055  255 255 255
-44.1584 -33.4697 8.59201  255 255 255
-30.0307 18.4941 -51.2409  255 255 255
53.7239 -45.1796 15.7617  255 255 255
-45.602 -9.30142 -19.2962  255 255 255
-5.3871 20.739 -55.4802  255 255 255
6.24955 56.7414 -74.8496  255 255 255
-74.0079 23.0254 -49.1378  255 255 255
48.3831 17.03 -39.7714  255 255 255
50.2362 14.0606 -37.8408  255 255 255
36.0162 63.7996 -93.8044  255 255 255
-103.745 15.6704 -45.2372  255 255 255
25.5183 29.3534 -67.1344  255 255 255
44.2038 -44.5888 14.9908  255 255 255
-47.1291 10.4113 -41.1974  255 255 255
-68.8964 0.103918 -28.2127  255 255 255
50.8703 -44.1589 13.8555  255 255 255
24.6155 8.28887 -42.6571  255 255 255
22.312 21.486 -57.9426  255 255 255
-60.489 24.4126 -46.9629  255 255 255
-84.4591 -11.6709 -14.6388  255 255 255
48.3025 29.1985 -67.9049  255 255 255
47.7102 -38.2181 7.11197  255 255 255
-35.5691 14.5362 -46.7082  255 255 255
-53.7373 26.9604 -49.4675  255 255 255
25.887 38.1733 -76.4925  255 255 255
55.0514 43.0008 -85.42  255 255 255
-50.1669 -10.0096 -17.7849  255 255 255
17.0588 23.9496 -60.1813  255 255 255
37.522 -49.9845 21.7884  255 255 255
-25.7227 -55.7827 32.7183  255 255 255
-26.819 -55.7951 32.7756  255 255 255
-45.2234 -52.2324 30.2165  255 255 255
-70.463 36.0811 -35.5339  255 255 255
36.293 -43.6993 14.181  255 255 255
-47.213 -50.7532 28.5716  255 255 255
-73.8829 -56.9933 39.7013  255 255 255
-26.7108 17.9058 -50.9177  255 255 255
16.1868 -56.2041 29.849  255 255 255
34.6957 -46.4902 17.6014  255 255 255
38.6844 -49.5531 21.019  255 255 255
-78.2758 2.42817 -30.62  255 255 255
47.7943 12.4203 -6.56162  255 255 255
17.8488 20.0655 -56.2367  255 255 255
-3.29925 54.49 -71.1008  255 255 255
-44.9811 -10.7801 -16.5651  255 255 255
4.73743 54.7432 -76.3786  255 255 255
-74.2601 -55.7766 37.7357  255 255 255
35.7714 43.3046 -83.5746  255 255 255
-18.6126 19.0608 -52.3886  255 255 255
35.334 -50.0351 21.5017  255 255 255
41.8927 -26.9399 -4.83479  255 255 255
28.5266 27.8206 -64.4007  255 255 255
17.7863 14.4448 -49.7624  255 255 255
50.774 38.8006 -79.3135  255 255 255
-30.9318 -50.9883 27.5119  255 255 255
-34.5312 -48.4379 25.1938  255 255 255
25.6467 -16.2021 19.0535  255 255 255
15.3009 23.8211 -60.192  255 255 255
48.0682 14.6571 -42.5982  255 255 255
-18.5168 2.42407 1.61161  255 255 255
52.3131 -43.6229 14.2216  255 255 255
56.0619 55.1241 -98.6955  255 255 255
-19.9098 17.8111 -51.1196  255 255 255
-53.1584 -4.87401 -23.2413  255 255 255
-63.3738 18.4388 -49.5167  255 255 255
-9.28038 -3.40543 29.2703  255 255 255
17.4794 15.8136 -51.6253  255 255 255
36.2125 -40.1185 10.4619  255 255 255
7.23665 57.4803 -75.1472  255 255 255
32.6506 72.172 -83.9198  255 255 255
47.0728 14.4789 -44.1432  255 255 255
48.3596 11.0737 -42.3176  255 255 255
-18.6785 19.6772 -52.5597  255 255 255
39.1508 -44.6281 15.093  255 255 255
-43.8731 -34.2437 9.27628  255 255 255
-46.0378 -44.3586 20.6628  255 255 255
-114.102 -11.6643 -10.7717  255 255 255
54.7148 -44.6021 15.2514  255 255 255
51.0225 6.63874 -40.2976  255 255 255
30.5671 -49.4391 20.7492  255 255 255
-85.5556 -6.11762 -20.5362  255 255 255
32.0747 -52.3184 24.388  255 255 255
23.2073 66.9991 -80.293  255 255 255
-77.3677 -47.0495 27.019  255 255 255
-30.9738 15.7664 -48.0187  255 255 255
4.5112 -48.2712 29.5612  255 255 255
-38.1567 -39.4406 14.7534  255 255 255
44.3252 38.3828 -78.8805  255 255 255
48.3906 -17.4093 -16.235  255 255 255
33.0508 -48.4486 19.747  255 255 255
-2.76093 -30.2002 37.6939  255 255 255
-76.8337 -51.0583 32.2912  255 255 255
-104.102 -8.80368 -15.5557  255 255 255
-47.1291 10.4113 -41.1974  255 255 255
-65.1758 -56.7649 38.4364  255 255 255
-42.116 -35.8151 10.7716  255 255 255
-43.3974 -25.3926 -0.884861  255 255 255
17.925 -47.9146 23.8383  255 255 255
-32.351 7.4483 -39.0706  255 255 255
36.7827 -40.007 10.2464  255 255 255
-33.6635 2.24484 -32.8474  255 255 255
7.50071 -57.519 31.7834  255 255 255
-75.4787 23.1959 -48.6183  255 255 255
42.0798 11.1454 -47.1772  255 255 255
45.0132 46.8121 -86.9642  255 255 255
13.501 15.1034 -50.7009  255 255 255
-67.073 -54.3588 35.2015  255 255 255
0.404421 42.024 -79.7003  255 255 255
15.1518 19.4424 -55.756  255 255 255
-76.436 -52.7408 34.3764  255 255 255
49.2524 15.522 -35.565  255 255 255
-5.26953 17.4236 -50.9354  255 255 255
51.9445 47.1756 -89.4396  255 255 255
-33.6111 -57.9561 35.2015  255 255 255
53.403 -46.3917 17.0128  255 255 255
-75.6467 24.5566 -47.3162  255 255 255
21.8615 -53.6799 26.6065  255 255 255
24.2224 -20.2842 23.7345  255 255 255
42.4989 -24.6658 -7.52067  255 255 255
-33.0712 -54.056 31.2239  255 255 255
-26.7167 -58.0175 34.9351  255 255 255
-22.1151 -54.7398 30.6415  255 255 255
54.6871 -43.0586 12.5756  255 255 255
5.09215 -58.2678 31.6097  255 255 255
49.817 -44.4186 14.5579  255 255 255
41.7623 -50.5161 22.1051  255 255 255
-24.1772 -56.7392 33.5049  255 255 255
-24.6438 -55.8519 32.6405  255 255 255
-2.01024 37.6698 -74.6014  255 255 255
-2.01024 37.6698 -74.6014  255 255 255
53.3806 -47.5572 18.5319  255 255 255
38.9822 -41.5168 11.9374  255 255 255
-37.2841 -47.8783 24.3118  255 255 255
-33.881 2.73229 -33.018  255 255 255
6.90992 -57.2008 31.6578  255 255 255
41.7607 74.1428 -88.3209  255 255 255
35.7312 -46.6479 17.6468  255 255 255
1.02604 -59.4132 34.3484  255 255 255
-35.0734 -49.1881 25.7812  255 255 255
36.7658 -46.1005 17.1151  255 255 255
34.6752 -48.754 19.8511  255 255 255
-26.4017 11.5116 -43.9936  255 255 255
37.2969 -46.4413 17.1205  255 255 255
72.541 85.2693 -99.5677  255 255 255
-71.2352 55.1233 -15.745  255 255 255
-71.2352 55.1233 -15.745  255 255 255
-25.5876 63.9804 -43.9497  255 255 255
50.3706 80.1097 -87.9018  255 255 255
61.2788 82.0894 -93.506  255 255 255
-57.6779 57.4984 -24.3407  255 255 255
39.4773 78.2326 -83.6527  255 255 255
-26.8821 63.5906 -43.4293  255 255 255
-80.2058 52.7951 -9.87967  255 255 255
64.8868 82.5291 -95.6519  255 255 255
-74.4793 53.9417 -13.8147  255 255 255
-67.9769 55.4119 -18.4963  255 255 255
-31.6281 62.3184 -40.6274  255 255 255
61.1259 81.8271 -94.3224  255 255 255
-26.5119 63.2453 -43.9748  255 255 255
-26.5119 63.2453 -43.9748  255 255 255
54.409 48.858 -8.7038  255 255 255
54.409 48.858 -8.7038  255 255 255
-40.5623 60.2227 -35.6087  255 255 255
-28.0831 62.7588 -43.5921  255 255 255
-72.6643 53.9407 -15.8627  255 255 255
-51.3267 57.8037 -28.6987  255 255 255
-51.3267 57.8037 -28.6987  255 255 255
-43.0902 59.1946 -33.3874  255 255 255
47.9729 78.2552 -87.5318  255 255 255
61.9308 81.1548 -95.359  255 255 255
52.5858 49.4321 -11.5249  255 255 255
9.76947 70.258 -66.9033  255 255 255
33.9668 74.8684 -79.7273  255 255 255
48.3311 78.099 -88.2485  255 255 255
16.1504 71.0817 -69.9465  255 255 255
-67.4206 54.4445 -19.4555  255 255 255
47.8491 77.5553 -88.2399  255 255 255
52.586 48.9825 -11.7778  255 255 255
59.7027 80.0014 -94.9681  255 255 255
50.7664 50.1354 -15.3451  255 255 255
50.7595 50.1356 -15.3371  255 255 255
-56.1514 56.4053 -26.934  255 255 255
53.7966 48.0333 -9.87109  255 255 255
-57.3723 56.0239 -26.0038  255 255 255
-27.7073 61.7425 -44.587  255 255 255
-67.9982 53.8087 -18.8496  255 255 255
-68.0606 53.9322 -19.2077  255 255 255
-56.9962 56.0503 -26.398  255 255 255
-3.74228 66.4898 -58.8995  255 255 255
48.5389 51.5747 -19.7159  255 255 255
-69.4298 53.9517 -19.5155  255 255 255
-58.3641 55.4853 -25.3679  255 255 255
-52.2265 56.666 -29.385  255 255 255
-52.1928 56.6806 -29.4315  255 255 255
55.5912 46.344 -6.45291  255 255 255
61.1561 79.3324 -95.7778  255 255 255
-68.025 53.6003 -19.5336  255 255 255
67.4864 80.8516 -99.8988  255 255 255
-31.152 60.6875 -42.7696  255 255 255
-0.339758 66.8751 -61.4726  255 255 255
35.8836 74.3469 -82.4856  255 255 255
35.8836 74.3469 -82.4856  255 255 255
57.7851 78.6568 -94.1223  255 255 255
-70.6444 53.1416 -18.0064  255 255 255
52.3583 48.5509 -12.7025  255 255 255
3.57441 67.0209 -63.0029  255 255 255
23.239 71.49 -75.0333  255 255 255
-69.3657 53.6581 -20.3456  255 255 255
52.3023 48.4639 -13.3452  255 255 255
52.3023 48.4639 -13.3452  255 255 255
10.47 68.4632 -67.6466  255 255 255
-62.2626 54.3037 -23.7172  255 255 255
-57.1614 55.5849 -27.7454  255 255 255
-57.1006 55.2907 -26.8948  255 255 255
-49.7939 56.8631 -32.1323  255 255 255
-40.399 58.3964 -37.3441  255 255 255
39.3138 74.5488 -84.7031  255 255 255
55.175 46.0179 -7.3772  255 255 255
-58.3703 55.1112 -26.7456  255 255 255
-58.3671 55.0624 -26.6512  255 255 255
-3.0803 65.6604 -60.2267  255 255 255
66.5861 79.82 -99.7183  255 255 255
-50.9422 56.392 -31.2659  255 255 255
10.93 68.4577 -68.8092  255 255 255
-35.1502 59.2024 -40.9675  255 255 255
-4.10687 65.213 -59.4933  255 255 255
-71.1181 52.3502 -18.3477  255 255 255
61.8647 78.566 -97.4647  255 255 255
53.9385 46.7284 -9.79927  255 255 255
-59.749 54.3988 -25.5887  255 255 255
-50.3464 56.0847 -32.107  255 255 255
44.8696 74.7112 -88.1947  255 255 255
-73.7233 52.1048 -18.3305  255 255 255
-49.7405 55.9434 -31.9801  255 255 255
50.7491 48.6175 -16.8494  255 255 255
-77.102 50.6427 -14.4824  255 255 255
-50.5854 55.4349 -31.8499  255 255 255
-65.1017 52.2302 -21.0903  255 255 255
53.0254 46.6985 -12.3848  255 255 255
-52.4137 54.9271 -30.6255  255 255 255
-51.5074 55.2965 -31.7601  255 255 255
54.6537 45.3202 -8.55614  255 255 255
-65.6862 51.9744 -20.7533  255 255 255
-62.8547 52.9829 -24.2343  255 255 255
35.3292 72.1503 -83.8573  255 255 255
-41.6647 56.8816 -37.6405  255 255 255
-41.626 56.7543 -37.3466  255 255 255
54.9265 45.203 -9.14672  255 255 255
54.9008 75.6778 -94.6756  255 255 255
40.7709 72.5865 -87.2996  255 255 255
44.1461 73.3966 -89.5582  255 255 255
-55.9249 53.76 -29.1222  255 255 255
45.8046 73.3762 -89.963  255 255 255
-90.0746 51.9197 -19.8542  255 255 255
-82.8015 49.0308 -12.382  255 255 255
-82.6244 48.785 -11.7358  255 255 255
-67.2837 52.0124 -22.9297  255 255 255
39.194 72.0371 -86.4578  255 255 255
64.0306 76.8872 -100.162  255 255 255
54.3643 45.0566 -10.0105  255 255 255
-62.5453 52.6421 -25.3783  255 255 255
-40.3586 56.4646 -39.1672  255 255 255
-51.0387 54.0582 -31.4935  255 255 255
26.9583 69.0147 -78.5867  255 255 255
-31.6481 57.6236 -43.9815  255 255 255
55.8317 43.7355 -7.36004  255 255 255
-53.1125 53.9325 -31.8289  255 255 255
-8.55142 61.9792 -59.0615  255 255 255
55.1339 44.1598 -9.08631  255 255 255
-75.0557 49.7037 -17.1432  255 255 255
-59.3746 52.4673 -27.1636  255 255 255
-67.1242 51.2153 -22.7482  255 255 255
53.0511 73.9631 -95.0478  255 255 255
19.4379 67.3533 -76.0283  255 255 255
49.8578 36.0392 13.5338  255 255 255
-51.2212 53.8774 -33.059  255 255 255
-40.4712 55.7057 -39.4764  255 255 255
-82.1959 48.3004 -13.1825  255 255 255
-77.2569 49.0455 -15.9429  255 255 255
-73.7146 49.3657 -17.2968  255 255 255
-28.9882 57.93 -47.346  255 255 255
-28.9882 57.93 -47.346  255 255 255
53.4433 73.6978 -95.1559  255 255 255
11.9967 65.503 -71.7317  255 255 255
18.0748 66.901 -75.8535  255 255 255
-39.5676 55.6255 -40.2793  255 255 255
10.6495 65.2368 -71.3264  255 255 255
-115.331 64.7428 -57.6274  255 255 255
-13.8496 60.4069 -56.5236  255 255 255
53.862 73.584 -95.8989  255 255 255
-52.3987 53.4027 -32.7802  255 255 255
-52.4319 53.4147 -32.7817  255 255 255
-41.4503 55.3095 -39.6286  255 255 255
64.6562 75.6203 -102.498  255 255 255
-53.8592 52.854 -31.5868  255 255 255
-25.763 57.8693 -49.5332  255 255 255
-25.7716 57.8491 -49.4916  255 255 255
-25.763 57.8693 -49.5332  255 255 255
-75.3283 48.8446 -17.696  255 255 255
55.5855 43.0784 -8.92697  255 255 255
56.2965 42.3729 -7.10296  255 255 255
52.6533 33.4241 18.6875  255 255 255
-65.5495 50.5516 -24.7217  255 255 255
-41.7545 54.2153 -38.3948  255 255 255
0.952993 62.403 -65.551  255 255 255
54.5167 72.8611 -97.1359  255 255 255
-76.9163 48.5529 -17.6584  255 255 255
55.7578 42.5925 -8.74478  255 255 255
-40.7859 54.6595 -40.5564  255 255 255
56.1466 42.1877 -7.7189  255 255 255
52.5916 33.0691 18.8586  255 255 255
-52.3705 52.4655 -33.0711  255 255 255
-52.3622 52.513 -33.1427  255 255 255
-8.19574 60.4722 -60.6727  255 255 255
49.8228 34.5646 13.7774  255 255 255
-8.56236 60.1546 -60.9707  255 255 255
-74.6307 48.3179 -19.5626  255 255 255
-61.9715 50.5089 -28.436  255 255 255
-51.673 52.1292 -34.2376  255 255 255
-10.2761 59.4699 -59.8753  255 255 255
-10.9623 59.3052 -59.6895  255 255 255
-0.824251 61.1769 -65.6381  255 255 255
-1.42062 60.7289 -64.4722  255 255 255
-1.87412 60.7911 -64.8884  255 255 255
-33.7632 54.8984 -45.4119  255 255 255
-33.7632 54.8984 -45.4119  255 255 255
-77.5214 47.4337 -17.9395  255 255 255
-10.613 59.1524 -60.1511  255 255 255
-0.952251 60.8626 -65.9164  255 255 255
-52.6587 51.2812 -33.0882  255 255 255
-1.82625 60.4812 -65.2443  255 255 255
49.2564 34.4098 12.1196  255 255 255
-25.9056 56.1792 -50.8921  255 255 255
-54.6095 51.1637 -33.0583  255 255 255
-4.82399 59.8705 -63.6495  255 255 255
-1.35059 60.382 -65.904  255 255 255
55.4361 40.8864 -7.98665  255 255 255
52.9044 42.78 -14.7186  255 255 255
-2.79978 59.7414 -65.7557  255 255 255
3.89222 60.9272 -69.6762  255 255 255
68.8168 73.1686 -107.256  255 255 255
-62.7969 49.2336 -28.3495  255 255 255
-3.32765 59.4059 -65.0764  255 255 255
52.9791 31.7433 18.1515  255 255 255
-37.2257 53.3344 -44.6299  255 255 255
1.45301 60.2308 -68.3156  255 255 255
-17.6383 56.4126 -55.7932  255 255 255
53.0601 42.4225 -14.8487  255 255 255
-8.35829 58.3491 -62.5381  255 255 255
-113.978 60.8284 -58.0074  255 255 255
-25.4465 55.0858 -51.6831  255 255 255
-18.9172 56.3143 -55.9847  255 255 255
-21.2047 55.5249 -53.9595  255 255 255
-15.5529 56.8246 -58.3743  255 255 255
-2.7634 59.1388 -66.333  255 255 255
50.185 33.0579 12.8264  255 255 255
52.7863 31.4934 17.5691  255 255 255
49.1948 44.2608 -22.6495  255 255 255
53.8845 30.724 19.4662  255 255 255
-21.5117 55.4623 -54.9925  255 255 255
-3.63837 58.382 -65.3492  255 255 255
55.6679 39.9985 -9.84031  255 255 255
55.6679 39.9985 -9.84031  255 255 255
-114.635 60.1528 -58.8638  255 255 255
-40.9449 51.8505 -43.0037  255 255 255
-54.8416 49.1415 -34.3878  255 255 255
-54.7728 49.0152 -34.0566  255 255 255
-38.7732 51.4641 -43.8193  255 255 255
-38.7732 51.4641 -43.8193  255 255 255
56.0684 28.6926 23.8311  255 255 255
-58.0779 48.3523 -32.1618  255 255 255
-58.0039 48.2911 -31.9991  255 255 255
-27.4747 53.4073 -51.6556  255 255 255
-61.8161 47.7664 -30.3534  255 255 255
51.3892 31.2619 15.0848  255 255 255
51.6042 31.5557 13.9256  255 255 255
-77.8256 45.0665 -19.8254  255 255 255
-77.8256 45.0665 -19.8254  255 255 255
-52.6441 49.1769 -36.4824  255 255 255
56.2045 28.372 23.8622  255 255 255
52.9414 30.1983 17.9187  255 255 255
-23.4796 53.7841 -54.9067  255 255 255
-18.4422 54.622 -58.108  255 255 255
55.2031 39.6559 -12.3831  255 255 255
53.3341 29.9363 18.1703  255 255 255
48.3249 43.4409 -25.2286  255 255 255
-32.9266 51.9215 -49.1205  255 255 255
43.8402 65.554 -95.3229  255 255 255
-64.6026 46.6001 -28.8866  255 255 255
-64.6026 46.6001 -28.8866  255 255 255
-15.9217 54.7023 -59.862  255 255 255
50.0798 31.7538 11.6611  255 255 255
51.6236 30.8812 14.5676  255 255 255
51.6236 30.8812 14.5676  255 255 255
-21.6006 53.665 -56.4408  255 255 255
-21.6073 53.7017 -56.535  255 255 255
52.5518 29.9722 17.1133  255 255 255
-27.0197 52.7334 -53.1601  255 255 255
-20.7761 53.7763 -57.0838  255 255 255
-20.7948 53.7973 -57.1383  255 255 255
-15.4308 54.7995 -60.6085  255 255 255
-65.7552 46.3404 -28.3376  255 255 255
49.8577 42.1404 -22.4228  255 255 255
49.9896 42.2448 -22.7298  255 255 255
-9.76078 55.3716 -63.9049  255 255 255
-89.4582 45.7445 -23.7952  255 255 255
-89.4582 45.7445 -23.7952  255 255 255
-25.284 52.4512 -53.9838  255 255 255
53.3565 29.1988 18.4088  255 255 255
50.3941 65.8994 -100.36  255 255 255
-17.2148 53.8772 -59.8299  255 255 255
-23.2371 52.5044 -54.8448  255 255 255
-19.7148 53.3036 -57.9533  255 255 255
52.6513 29.5356 17.1648  255 255 255
-75.565 44.3421 -22.37  255 255 255
-21.0601 53.2177 -57.6652  255 255 255
46.0087 64.8355 -97.7103  255 255 255
57.8991 26.5325 26.4049  255 255 255
10.4617 58.4279 -77.2783  255 255 255
-26.4593 51.9474 -54.3737  255 255 255
42.7286 63.9519 -96.1649  255 255 255
-77.6353 43.4872 -21.4778  255 255 255
-55.8662 46.6978 -35.4172  255 255 255
-23.2985 52.1036 -56.7507  255 255 255
-62.5737 45.6136 -31.3275  255 255 255
11.0932 57.1986 -75.4451  255 255 255
53.4104 28.9402 16.7006  255 255 255
57.3544 26.4533 24.7363  255 255 255
-74.6929 43.6609 -23.5502  255 255 255
-17.603 52.7722 -60.6498  255 255 255
-17.6023 52.7562 -60.594  255 255 255
-53.6456 46.8136 -37.4551  255 255 255
45.88 63.6604 -99.0367  255 255 255
-45.2876 47.9133 -42.4963  255 255 255
51.4873 29.5924 13.2968  255 255 255
-64.4499 45.0562 -31.1469  255 255 255
-58.8273 45.6322 -34.3406  255 255 255
-58.5662 45.257 -33.0286  255 255 255
-76.5784 42.887 -22.5941  255 255 255
41.8364 62.3845 -96.8043  255 255 255
52.2395 28.9412 14.8343  255 255 255
-33.2063 49.5693 -51.1641  255 255 255
53.0002 28.5319 16.0787  255 255 255
-45.7752 47.2799 -42.3683  255 255 255
52.4062 38.6213 -18.0482  255 255 255
-65.7027 44.2792 -30.2615  255 255 255
-65.7027 44.2792 -30.2615  255 255 255
-45.3138 47.3794 -43.5036  255 255 255
-47.4573 46.9926 -42.2551  255 255 255
53.0596 28.3489 15.7273  255 255 255
58.8702 24.7716 27.4752  255 255 255
19.8515 57.981 -84.9859  255 255 255
45.6135 61.9989 -99.1416  255 255 255
-65.6948 44.0685 -31.2869  255 255 255
-13.4856 52.073 -64.3182  255 255 255
49.7964 29.7122 9.68241  255 255 255
59.3718 24.2792 27.8553  255 255 255
47.4854 61.9974 -102.001  255 255 255
53.0276 27.6386 15.7782  255 255 255
19.7772 57.2503 -85.1875  255 255 255
49.1082 29.7834 8.06486  255 255 255
-79.0798 41.2103 -22.5403  255 255 255
-53.0562 45.0367 -39.4647  255 255 255
-53.0562 45.0367 -39.4647  255 255 255
-48.747 45.8868 -42.8842  255 255 255
52.0502 27.951 13.5448  255 255 255
-21.2789 48.902 -56.761  255 255 255
50.5442 28.6469 10.8076  255 255 255
52.7457 27.3519 15.1755  255 255 255
-65.9718 42.9668 -31.4718  255 255 255
50.0539 38.5561 -23.9942  255 255 255
50.6612 28.3659 11.3612  255 255 255
-65.5831 42.7344 -31.4911  255 255 255
51.4868 37.5707 -21.6801  255 255 255
-7.78249 51.6154 -69.394  255 255 255
50.1436 38.15 -23.9777  255 255 255
-51.5729 44.5952 -41.0081  255 255 255
-46.4007 45.373 -44.652  255 255 255
-46.4007 45.373 -44.652  255 255 255
-52.6009 44.2438 -40.5735  255 255 255
20.5326 55.5703 -85.7687  255 255 255
-37.6148 46.4247 -50.5103  255 255 255
-19.9659 47.379 -55.8966  255 255 255
-42.1344 45.597 -47.7748  255 255 255
-52.8474 43.7802 -40.5729  255 255 255
27.7278 56.6355 -91.5541  255 255 255
55.4053 24.9743 19.8023  255 255 255
55.4053 24.9743 19.8023  255 255 255
-77.1096 40.4778 -26.2516  255 255 255
-31.2564 46.8689 -55.3572  255 255 255
-62.1912 41.7575 -33.631  255 255 255
42.2249 58.4483 -100.576  255 255 255
-41.481 45.1697 -48.7323  255 255 255
-60.5605 42.2437 -35.92  255 255 255
51.9819 35.7495 -20.0301  255 255 255
-32.0389 46.0848 -55.289  255 255 255
52.2359 35.5646 -20.9362  255 255 255
-79.4497 39.3381 -24.1761  255 255 255
50.6254 36.4566 -24.1469  255 255 255
6.19021 51.6372 -79.5585  255 255 255
48.7106 27.8778 6.24393  255 255 255
49.0544 27.9144 6.05679  255 255 255
-40.8226 44.2938 -49.4384  255 255 255
-58.1354 41.615 -37.7932  255 255 255
-58.1354 41.615 -37.7932  255 255 255
-100.875 45.3634 -45.3823  255 255 255
-39.5774 44.2926 -50.3688  255 255 255
-39.5774 44.2926 -50.3688  255 255 255
-8.34256 48.9268 -70.3065  255 255 255
-57.8427 41.6995 -39.0757  255 255 255
-43.8942 43.5613 -48.1663  255 255 255
-52.3442 42.1615 -43.1006  255 255 255
-52.3369 42.1787 -43.1381  255 255 255
-58.8156 41.131 -38.633  255 255 255
-58.8156 41.131 -38.633  255 255 255
-58.7288 41.0282 -38.3002  255 255 255
-44.7674 43.0174 -48.0532  255 255 255
19.6149 52.8414 -88.8398  255 255 255
47.9227 36.894 -30.3656  255 255 255
56.8263 23.0203 21.2896  255 255 255
-70.9624 39.3409 -31.228  255 255 255
6.61423 50.4495 -80.754  255 255 255
-64.6643 40.0855 -35.8243  255 255 255
-55.5305 40.8777 -40.7876  255 255 255
55.8407 23.1837 19.279  255 255 255
48.5779 36.0311 -29.3028  255 255 255
-48.3849 41.8934 -46.2602  255 255 255
54.4907 23.7677 16.504  255 255 255
54.4907 23.7677 16.504  255 255 255
-52.5325 41.2354 -43.5792  255 255 255
54.7723 23.6486 16.5617  255 255 255
54.4966 23.5332 17.0385  255 255 255
-68.8221 38.8855 -32.8794  255 255 255
-41.2351 42.4771 -51.127  255 255 255
-53.1947 40.7414 -43.4257  255 255 255
-53.1962 40.7682 -43.4121  255 255 255
-69.3637 38.3581 -32.5079  255 255 255
-54.1137 40.4109 -42.875  255 255 255
54.1425 23.3685 15.6493  255 255 255
52.3434 24.1883 12.241  255 255 255
54.747 22.9423 16.9016  255 255 255
52.632 33.1337 -22.7952  255 255 255
-66.0835 38.5066 -35.3873  255 255 255
50.9061 24.7231 9.40537  255 255 255
51.8019 24.233 11.4701  255 255 255
52.3784 23.9546 12.5291  255 255 255
-50.3935 40.1085 -45.259  255 255 255
-63.3344 38.6466 -37.7065  255 255 255
54.0082 22.9616 15.3575  255 255 255
-49.8336 39.5984 -44.1256  255 255 255
-52.7513 39.4589 -43.2946  255 255 255
-7.82792 45.783 -73.22  255 255 255
51.3754 32.6654 -23.5743  255 255 255
-48.4919 40.1419 -47.5591  255 255 255
-39.7891 41.3577 -53.2296  255 255 255
-39.7862 41.2714 -53.0344  255 255 255
-87.4557 36.4597 -26.8211  255 255 255
-58.9933 38.6848 -40.6662  255 255 255
-59.5712 38.5722 -40.3405  255 255 255
-52.5116 39.4996 -44.7431  255 255 255
-52.5617 39.5887 -45.1729  255 255 255
-78.423 36.1232 -28.3687  255 255 255
50.8606 23.9345 8.79604  255 255 255
-56.7138 38.6112 -42.5673  255 255 255
-56.7342 38.6252 -42.5103  255 255 255
-56.7342 38.6252 -42.5103  255 255 255
-51.1947 39.1418 -45.6223  255 255 255
-49.3958 39.3791 -46.8848  255 255 255
-48.029 39.6438 -48.0467  255 255 255
50.2418 24.2121 7.28268  255 255 255
-75.0836 36.4706 -31.5827  255 255 255
-72.2812 36.7015 -33.0085  255 255 255
-53.0023 38.6996 -44.3087  255 255 255
-53.1354 38.8699 -45.0204  255 255 255
-68.0519 36.8635 -35.2809  255 255 255
-67.6684 36.9539 -35.8696  255 255 255
-67.6685 36.9536 -35.8665  255 255 255
54.3995 31.0402 -20.859  255 255 255
-47.3464 39.3402 -49.0823  255 255 255
-48.0916 39.1866 -48.6195  255 255 255
-9.45511 44.4076 -73.8615  255 255 255
-9.48798 44.4642 -74.0803  255 255 255
55.091 21.5053 16.5007  255 255 255
-54.2579 38.1013 -44.7357  255 255 255
-53.6577 38.1149 -45.2354  255 255 255
-31.709 40.9684 -59.7627  255 255 255
-72.626 35.8057 -33.2223  255 255 255
-57.3832 37.4878 -42.743  255 255 255
-57.3898 37.5004 -42.8324  255 255 255
50.3064 23.5156 6.99261  255 255 255
-49.9538 38.2857 -48.1612  255 255 255
-77.1757 34.8726 -29.5189  255 255 255
52.7906 30.5602 -22.3433  255 255 255
-40.0421 39.6223 -54.7993  255 255 255
-40.0734 39.6012 -54.7558  255 255 255
-8.91305 43.886 -74.9028  255 255 255
-8.9276 43.9111 -74.9707  255 255 255
-53.5523 37.8596 -45.967  255 255 255
-59.7931 36.8768 -41.7888  255 255 255
53.6929 21.5041 13.2656  255 255 255
54.3952 21.0658 14.987  255 255 255
-49.2735 37.7256 -48.3195  255 255 255
-9.00888 43.323 -75.5483  255 255 255
53.3191 29.8226 -21.644  255 255 255
50.6153 22.8712 7.1579  255 255 255
54.9734 20.6904 15.9582  255 255 255
53.7331 29.2709 -21.0019  255 255 255
-73.2568 34.5273 -33.1937  255 255 255
-84.3284 33.0724 -26.0685  255 255 255
-41.6082 38.0388 -53.7581  255 255 255
55.2762 20.0953 16.3349  255 255 255
-42.9706 38.3517 -55.0639  255 255 255
54.0876 20.5467 14.2321  255 255 255
54.1337 20.5738 14.1597  255 255 255
-61.3382 35.6504 -41.5855  255 255 255
-58.5562 36.0088 -43.387  255 255 255
54.0642 28.6058 -20.837  255 255 255
52.7949 20.807 11.6343  255 255 255
-40.7973 37.3682 -56.0352  255 255 255
-13.2207 41.0316 -74.6312  255 255 255
58.6863 17.91 22.516  255 255 255
-82.8944 32.4442 -27.8178  255 255 255
54.1006 28.071 -21.6013  255 255 255
53.2963 20.2582 12.095  255 255 255
49.5901 21.9343 4.59921  255 255 255
49.6267 21.9503 4.50198  255 255 255
53.7638 19.9842 12.9959  255 255 255
-54.3468 35.2868 -47.3533  255 255 255
-64.4659 33.9899 -40.515  255 255 255
57.9471 17.9633 20.4658  255 255 255
-66.7348 33.6972 -39.3628  255 255 255
54.6483 27.2295 -20.3064  255 255 255
48.7389 29.847 -32.4933  255 255 255
53.8446 19.4822 12.951  255 255 255
-53.7264 34.75 -47.5804  255 255 255
-52.3153 35.1417 -49.4178  255 255 255
-11.6903 40.1222 -76.3552  255 255 255
-63.1797 33.6876 -42.007  255 255 255
53.4627 27.3605 -23.0175  255 255 255
-64.207 33.4719 -41.0054  255 255 255
-34.8426 37.0344 -61.4286  255 255 255
-62.8695 33.552 -42.1957  255 255 255
-55.2469 34.2353 -46.8507  255 255 255
-40.4818 35.9988 -58.2048  255 255 255
-40.4798 36.0001 -58.2338  255 255 255
50.9017 20.3388 6.28682  255 255 255
51.1363 20.3119 6.50004  255 255 255
50.6919 20.3195 5.9419  255 255 255
50.7736 20.3574 5.86608  255 255 255
-56.1644 33.5647 -46.7432  255 255 255
-51.9576 34.1701 -50.0446  255 255 255
-37.5629 35.9862 -60.075  255 255 255
-29.9644 36.7246 -64.9432  255 255 255
49.3088 20.6082 3.50859  255 255 255
-29.4412 36.4396 -65.9938  255 255 255
52.8919 26.4312 -24.8355  255 255 255
-81.6255 30.5984 -31.3582  255 255 255
53.2581 18.5842 10.4193  255 255 255
55.4599 17.5896 14.9229  255 255 255
-81.8361 30.3508 -31.3305  255 255 255
50.8948 19.5893 5.58894  255 255 255
50.686 19.487 5.83572  255 255 255
15.5376 37.0587 -74.8928  255 255 255
-77.9405 29.9983 -31.5445  255 255 255
-34.3177 35.3516 -63.3667  255 255 255
24.1709 37.2049 -76.4035  255 255 255
50.3908 19.2324 5.26419  255 255 255
59.0848 15.754 21.7553  255 255 255
17.914 36.6081 -75.4184  255 255 255
-37.1473 34.4069 -61.473  255 255 255
-149.815 39.8478 -68.1347  255 255 255
49.4754 19.2956 3.77133  255 255 255
48.6878 20.2309 -0.783113  255 255 255
51.8863 18.8628 5.55146  255 255 255
51.4564 18.6587 6.47733  255 255 255
-84.1206 29.1993 -30.8418  255 255 255
45.565 28.5215 -41.1359  255 255 255
50.0267 18.8829 4.44538  255 255 255
55.983 16.9278 13.8701  255 255 255
-36.5097 33.8203 -61.5828  255 255 255
51.9293 18.2392 7.14223  255 255 255
-74.6655 29.8504 -37.2687  255 255 255
-57.6412 31.428 -47.9877  255 255 255
51.5127 18.3113 6.52977  255 255 255
55.3965 16.5994 14.4903  255 255 255
-63.8712 30.6781 -43.918  255 255 255
-80.4425 28.9573 -33.8148  255 255 255
-77.7701 28.6734 -33.2765  255 255 255
-66.1366 30.2761 -43.2695  255 255 255
-54.227 31.3879 -51.1627  255 255 255
-54.1184 31.267 -50.7052  255 255 255
-54.227 31.3879 -51.1627  255 255 255
-64.101 30.3503 -44.7828  255 255 255
-77.9332 28.9329 -35.7854  255 255 255
-62.7205 30.3539 -45.6225  255 255 255
55.8237 15.9492 15.0406  255 255 255
58.72 14.8107 20.8305  255 255 255
-73.4103 29.9489 -42.4039  255 255 255
-73.8274 29.7807 -42.6112  255 255 255
17.6675 33.4782 -71.6239  255 255 255
51.6877 17.3704 6.57941  255 255 255
-56.1364 30.6629 -50.7902  255 255 255
50.8349 17.5539 4.82792  255 255 255
50.8319 17.5603 4.81861  255 255 255
-73.9768 29.389 -42.363  255 255 255
49.8799 24.9457 -32.3889  255 255 255
-80.4234 27.9478 -34.7804  255 255 255
-85.0095 27.3637 -31.3604  255 255 255
-80.074 27.7904 -34.994  255 255 255
57.8701 14.4902 18.5328  255 255 255
61.3369 13.113 25.2683  255 255 255
-77.9583 27.81 -36.6334  255 255 255
-73.7132 28.9014 -43.132  255 255 255
-8.64159 32.065 -68.2497  255 255 255
54.181 22.759 -23.7676  255 255 255
50.7338 17.0438 4.00299  255 255 255
-78.6816 27.2777 -35.947  255 255 255
-78.7435 27.328 -36.1847  255 255 255
-0.766618 30.8447 -67.3671  255 255 255
47.7079 17.8098 -2.20051  255 255 255
-41.109 30.5706 -62.4663  255 255 255
-60.9704 28.1367 -47.0824  255 255 255
-43.2581 29.9119 -60.8355  255 255 255
-43.2397 29.903 -60.842  255 255 255
38.9776 30.2809 -69.4467  255 255 255
-66.695 27.3648 -44.0734  255 255 255
50.8779 16.1043 3.99816  255 255 255
41.3951 29.812 -68.5912  255 255 255
-85.0374 25.7956 -33.2999  255 255 255
47.777 23.9935 -38.562  255 255 255
-43.2802 29.5555 -61.4833  255 255 255
49.8398 16.2357 0.791321  255 255 255
-82.0998 25.5868 -35.7152  255 255 255
-44.8488 29.1089 -62.2022  255 255 255
47.6826 16.6539 -2.83364  255 255 255
49.8427 15.7589 1.91893  255 255 255
49.8531 15.7654 1.90087  255 255 255
59.0029 12.4496 19.9343  255 255 255
-73.4694 26.9738 -46.824  255 255 255
49.0257 15.8209 -0.0342316  255 255 255
53.9528 14.1005 9.62728  255 255 255
52.6295 14.4091 7.02148  255 255 255
-79.6322 25.1514 -38.1597  255 255 255
55.5865 13.2202 12.161  255 255 255
-60.5361 29.9141 -72.0716  255 255 255
-53.4705 23.9086 -40.9796  255 255 255
43.3356 27.1667 -65.2467  255 255 255
-33.2227 27.1028 -59.9731  255 255 255
47.8233 15.9318 -3.74027  255 255 255
53.4201 13.7697 7.99086  255 255 255
53.3453 13.7449 8.08269  255 255 255
58.7936 11.7184 18.518  255 255 255
0.978251 26.4979 -62.4801  255 255 255
-2.16965 26.5107 -62.3389  255 255 255
-8.30242 26.4175 -61.8398  255 255 255
49.0698 21.4498 -37.0797  255 255 255
53.701 13.286 8.525  255 255 255
-80.8799 23.8266 -36.8872  255 255 255
-3.11237 26.0989 -61.6927  255 255 255
52.9129 13.761 5.25491  255 255 255
52.6282 13.6314 5.86069  255 255 255
-83.6261 23.5665 -35.5175  255 255 255
-0.248547 25.5145 -61.3305  255 255 255
-90.9898 24.3111 -42.5673  255 255 255
-80.2992 23.2536 -39.3092  255 255 255
-79.8203 22.9848 -38.0248  255 255 255
54.5793 12.1571 8.65979  255 255 255
-42.6229 24.3844 -57.5603  255 255 255
51.8825 12.6327 4.24584  255 255 255
51.8825 12.6327 4.24584  255 255 255
34.8824 23.6686 -61.6548  255 255 255
53.8026 11.9955 7.54915  255 255 255
-65.8763 23.4354 -49.3176  255 255 255
-83.2361 21.9764 -37.5336  255 255 255
-83.0507 21.8794 -37.0583  255 255 255
35.8171 23.3927 -60.9827  255 255 255
52.632 12.1578 5.61346  255 255 255
-14.3645 23.0723 -57.2808  255 255 255
-40.0828 23.3317 -56.1416  255 255 255
50.5379 12.6569 1.32545  255 255 255
29.4137 22.6723 -60.13  255 255 255
-79.3867 21.4735 -41.9284  255 255 255
51.3143 11.8278 2.25091  255 255 255
53.8679 11.0781 6.32172  255 255 255
15.1862 21.4736 -57.8714  255 255 255
50.5027 11.9408 0.461275  255 255 255
52.6095 11.198 4.83793  255 255 255
-20.7324 21.5224 -55.4983  255 255 255
55.1766 10.3026 10.0204  255 255 255
-114.04 23.7292 -52.5125  255 255 255
-65.3211 21.7671 -51.8974  255 255 255
-40.4427 21.1216 -52.5882  255 255 255
31.4633 20.7946 -57.9225  255 255 255
49.2538 11.9945 -2.49519  255 255 255
50.5527 11.5456 0.40104  255 255 255
51.3132 11.2857 1.7895  255 255 255
-65.1476 21.5755 -52.7161  255 255 255
-17.0569 20.5397 -54.4523  255 255 255
63.2192 7.15887 26.5832  255 255 255
49.5411 11.489 -1.74775  255 255 255
49.9217 11.4237 -1.23638  255 255 255
-42.1516 20.497 -52.8099  255 255 255
-40.271 20.1736 -51.721  255 255 255
63.0466 7.10601 25.6066  255 255 255
62.7548 7.09895 24.8741  255 255 255
-85.6106 19.3273 -37.9645  255 255 255
58.6994 8.39257 16.2677  255 255 255
58.6348 8.3453 16.2916  255 255 255
62.7728 7.07768 24.5063  255 255 255
50.5234 10.8162 -0.291018  255 255 255
63.7698 6.57458 26.9883  255 255 255
49.3061 11.1217 -3.06404  255 255 255
52.5068 10.1027 3.61165  255 255 255
52.3844 10.0534 3.19842  255 255 255
46.9029 11.6174 -7.98034  255 255 255
53.214 9.53849 4.99942  255 255 255
-18.6159 18.5687 -52.1199  255 255 255
52.4236 9.65418 3.31515  255 255 255
-6.48394 18.207 -52.4081  255 255 255
53.6107 9.18492 5.46796  255 255 255
63.0771 6.10221 25.3377  255 255 255
-14.9251 17.8774 -51.5495  255 255 255
52.4997 9.3558 2.61256  255 255 255
63.6095 5.87479 26.4952  255 255 255
63.7165 5.88912 26.341  255 255 255
-111.468 20.4323 -50.3772  255 255 255
-111.468 20.4323 -50.3772  255 255 255
-78.7202 18.3477 -45.1605  255 255 255
-42.6029 17.7427 -49.1269  255 255 255
-20.9861 17.3635 -50.5906  255 255 255
47.2693 10.5082 -9.10232  255 255 255
54.1265 8.27979 6.06337  255 255 255
54.09 8.27491 6.08435  255 255 255
50.9389 9.09968 -0.376695  255 255 255
52.8425 13.5943 -32.7338  255 255 255
52.4086 8.59523 2.3023  255 255 255
-13.8292 16.3478 -50.2141  255 255 255
52.3095 8.32037 1.96159  255 255 255
52.2823 8.31818 1.98896  255 255 255
52.3135 8.32965 1.96499  255 255 255
-12.9883 15.7322 -49.2776  255 255 255
-79.5814 16.4994 -42.8759  255 255 255
-28.2154 15.606 -48.2124  255 255 255
-13.9465 15.3504 -48.8797  255 255 255
-13.9321 15.3248 -48.8335  255 255 255
53.9374 7.42214 5.13351  255 255 255
61.375 5.56369 18.6571  255 255 255
58.3998 6.03841 14.3623  255 255 255
51.7799 7.74881 0.664147  255 255 255
56.4299 6.5323 9.82689  255 255 255
52.2029 7.54298 1.41291  255 255 255
-16.9814 14.4605 -47.2642  255 255 255
57.7361 5.7994 12.6681  255 255 255
50.9753 7.23463 -1.66026  255 255 255
51.1567 7.26496 -2.02772  255 255 255
56.8701 5.59877 10.6274  255 255 255
-8.17345 13.3111 -46.8906  255 255 255
-45.5291 13.7062 -45.6873  255 255 255
-9.16367 13.0609 -46.5615  255 255 255
55.4402 5.67818 7.563  255 255 255
-41.0186 13.2154 -45.281  255 255 255
50.1458 6.8572 -3.7528  255 255 255
55.7403 5.40558 7.37496  255 255 255
55.7265 5.39803 7.40739  255 255 255
53.7131 5.74324 3.38503  255 255 255
51.7625 6.26668 -0.752338  255 255 255
-34.6392 12.5967 -44.3789  255 255 255
52.5677 5.86979 1.00489  255 255 255
-15.3451 11.9858 -45.0328  255 255 255
-10.709 11.8531 -45.1727  255 255 255
-73.5377 13.1034 -43.1687  255 255 255
-15.2145 11.54 -44.2198  255 255 255
47.895 6.6513 -8.62972  255 255 255
-55.2563 12.1963 -42.715  255 255 255
-18.5598 11.5461 -44.4966  255 255 255
-18.07 11.5218 -44.2759  255 255 255
46.6356 6.79503 -11.9244  255 255 255
51.2628 5.50709 -3.05544  255 255 255
50.4862 5.33502 -4.01909  255 255 255
52.2143 5.07079 -1.46524  255 255 255
-20.871 10.5027 -42.8182  255 255 255
51.6937 4.70004 -1.46737  255 255 255
63.767 1.88652 22.4023  255 255 255
52.4956 4.15337 0.159353  255 255 255
57.4897 2.92205 10.4152  255 255 255
-26.2323 9.31582 -41.6445  255 255 255
-32.0854 9.35277 -41.4855  255 255 255
51.6232 4.0443 -2.04801  255 255 255
5.92819 1.41507 23.4657  255 255 255
63.1565 1.24586 21.9596  255 255 255
-46.8495 9.18374 -40.0647  255 255 255
57.139 2.51812 9.93747  255 255 255
-3.43633 1.57271 21.8747  255 255 255
59.1062 2.05521 11.7067  255 255 255
52.829 2.96744 -0.280706  255 255 255
57.5357 1.75424 9.47755  255 255 255
-31.0403 7.44898 -38.8546  255 255 255
57.405 1.64851 9.14067  255 255 255
-121.07 9.39202 -35.379  255 255 255
52.8754 2.48502 -0.287495  255 255 255
58.8372 1.27476 12.1536  255 255 255
56.5546 1.66198 7.22661  255 255 255
51.957 2.51613 -2.84455  255 255 255
51.9074 2.50252 -2.71495  255 255 255
58.0674 1.20434 10.4323  255 255 255
-120.021 8.71196 -33.519  255 255 255
63.1075 0.0180262 20.1981  255 255 255
58.1401 0.879112 10.3928  255 255 255
48.9434 2.59811 -9.09558  255 255 255
-75.1289 7.20124 -35.9274  255 255 255
50.2948 2.21591 -6.43874  255 255 255
54.0613 1.54431 1.22075  255 255 255
64.2433 -0.509767 21.7882  255 255 255
54.2087 1.33206 2.02454  255 255 255
56.7178 0.889375 7.0314  255 255 255
54.5262 1.09078 2.77706  255 255 255
53.6567 1.07472 0.842715  255 255 255
58.7003 0.104999 11.4529  255 255 255
54.8695 0.78943 2.95836  255 255 255
54.6238 0.820703 2.58989  255 255 255
54.6067 0.8167 2.60689  255 255 255
57.849 0.0757585 9.15993  255 255 255
58.4958 -0.0213726 10.632  255 255 255
63.6673 -1.09637 20.9349  255 255 255
65.1969 -1.45758 25.2059  255 255 255
51.4833 1.13336 -4.60413  255 255 255
59.1536 -0.420176 13.4936  255 255 255
54.7835 0.404077 2.5009  255 255 255
55.133 0.32235 3.66249  255 255 255
56.4428 -0.0162426 6.40342  255 255 255
54.8878 0.397385 1.13365  255 255 255
58.0466 -0.334576 9.40913  255 255 255
59.2664 -0.548902 11.8833  255 255 255
64.6565 -1.64663 23.8956  255 255 255
-26.7199 4.16549 -35.307  255 255 255
-26.7167 4.13402 -35.0197  255 255 255
55.5723 -0.100886 3.97504  255 255 255
7.07012 -1.61825 25.496  255 255 255
59.6277 -0.904888 12.8148  255 255 255
0.408448 -1.64771 26.8314  255 255 255
58.2007 -0.690985 9.3959  255 255 255
51.0671 0.598075 -6.17099  255 255 255
54.311 0.0399478 0.894026  255 255 255
64.4218 -1.88869 22.9541  255 255 255
0.0142546 -1.75985 27.269  255 255 255
62.8541 -1.68303 19.7047  255 255 255
62.8496 -1.67683 19.6905  255 255 255
47.3495 0.972942 -13.1573  255 255 255
-70.0735 4.28533 -33.0555  255 255 255
64.1589 -2.18969 21.9336  255 255 255
-70.4874 4.12074 -33.4633  255 255 255
55.9574 -0.923129 4.50261  255 255 255
64.9174 -2.52536 23.9031  255 255 255
-15.3448 -1.70547 22.2185  255 255 255
-12.5473 -2.00359 25.7936  255 255 255
57.4584 -1.25627 7.37797  255 255 255
48.2301 0.146787 -12.6411  255 255 255
62.0199 -2.26943 18.0529  255 255 255
57.5916 -1.55187 7.43778  255 255 255
57.6041 -1.55707 7.41716  255 255 255
57.7109 -1.62141 7.77562  255 255 255
-10.023 -2.53462 28.1375  255 255 255
61.9427 -2.48905 17.9383  255 255 255
48.2053 -0.12927 -12.9436  255 255 255
58.5262 -1.91685 9.40765  255 255 255
-70.1599 2.9763 -30.9554  255 255 255
60.7485 -2.33415 14.2976  255 255 255
58.2932 -1.96139 8.61399  255 255 255
59.2483 -2.12317 10.9327  255 255 255
59.4704 -2.09489 10.5014  255 255 255
60.8794 -2.59606 15.8465  255 255 255
-12.082 -2.77403 26.9401  255 255 255
58.0684 -2.08821 7.19783  255 255 255
58.0684 -2.08821 7.19783  255 255 255
61.0189 -2.59962 14.6206  255 255 255
64.9874 -3.33218 23.6621  255 255 255
64.9874 -3.33218 23.6621  255 255 255
-67.9002 2.63444 -31.5432  255 255 255
-16.3512 -2.41804 21.7614  255 255 255
-16.3458 -2.42784 21.8158  255 255 255
57.1535 -2.0162 5.73006  255 255 255
63.7898 -3.0631 19.5822  255 255 255
59.6941 -2.48219 11.7558  255 255 255
57.9638 -2.24829 7.95542  255 255 255
-74.8462 2.47212 -30.2597  255 255 255
62.3676 -3.16492 17.8178  255 255 255
-40.7785 1.58599 -31.3036  255 255 255
-11.0856 -3.33794 28.1462  255 255 255
-11.0856 -3.33794 28.1462  255 255 255
62.2565 -3.21653 16.6141  255 255 255
64.7911 -3.7716 22.4706  255 255 255
53.8284 -2.11782 -1.07255  255 255 255
61.2875 -3.25834 14.7993  255 255 255
57.6367 -2.77091 6.72558  255 255 255
50.203 -1.7551 -9.36729  255 255 255
54.9504 -2.50996 1.30102  255 255 255
63.3834 -3.80146 18.8881  255 255 255
63.6914 -3.9124 19.8747  255 255 255
63.6858 -3.89864 19.8406  255 255 255
54.9945 -2.67416 0.76017  255 255 255
54.9945 -2.67416 0.76017  255 255 255
55.533 -2.77799 2.3017  255 255 255
59.5054 -3.4462 10.8003  255 255 255
54.7691 -2.78307 0.507348  255 255 255
8.64143 -4.35532 29.376  255 255 255
57.2365 -3.28327 5.34539  255 255 255
63.3557 -4.20418 18.974  255 255 255
61.7075 -3.99325 15.1531  255 255 255
-19.6444 -3.00889 12.7291  255 255 255
58.1093 -3.50197 7.51962  255 255 255
65.5715 -4.82408 24.0896  255 255 255
58.6299 -3.88656 8.62931  255 255 255
54.8102 -3.33942 -0.138707  255 255 255
61.8936 -4.33876 15.8583  255 255 255
59.9462 -4.12358 11.2828  255 255 255
61.5361 -4.30679 14.5611  255 255 255
61.5361 -4.30679 14.5611  255 255 255
64.2293 -4.77509 20.7608  255 255 255
-45.2734 -0.605766 -29.0327  255 255 255
58.3792 -4.19312 8.02765  255 255 255
63.0227 -4.82306 17.4829  255 255 255
-23.4661 -3.35261 8.82157  255 255 255
-23.4686 -3.34908 8.84593  255 255 255
55.9564 -3.92245 2.27887  255 255 255
61.5594 -4.74696 14.6723  255 255 255
61.5594 -4.74696 14.6723  255 255 255
54.9987 -3.92619 0.0645981  255 255 255
54.5571 -3.92473 -1.313  255 255 255
59.5492 -4.54642 9.9998  255 255 255
63.5008 -5.11627 18.9733  255 255 255
61.3607 -4.89664 14.1076  255 255 255
59.2758 -4.59605 9.30708  255 255 255
-48.5125 -1.34673 -27.6644  255 255 255
-8.65767 -5.32865 30.8664  255 255 255
-8.65767 -5.32865 30.8664  255 255 255
54.4899 -4.32993 -1.28963  255 255 255
-23.7893 -4.01489 9.59718  255 255 255
64.7265 -5.65963 21.2282  255 255 255
55.1009 -4.82277 -0.284797  255 255 255
65.8772 -6.11545 23.8735  255 255 255
-17.3409 -5.24311 24.0065  255 255 255
59.9743 -5.43597 10.0248  255 255 255
59.6727 -5.44412 9.42736  255 255 255
61.3076 -5.66508 13.1864  255 255 255
64.373 -6.21015 20.2642  255 255 255
42.8283 -3.64482 -31.6434  255 255 255
60.13 -5.72958 10.5178  255 255 255
55.2011 -5.25752 -0.37912  255 255 255
61.406 -6.01479 13.2527  255 255 255
62.5865 -6.29243 15.3288  255 255 255
64.9892 -6.64617 21.4876  255 255 255
49.0558 -4.87 -13.5754  255 255 255
55.5721 -5.58619 0.131985  255 255 255
55.5586 -5.58702 0.160319  255 255 255
-10.9069 -6.32149 30.611  255 255 255
-10.908 -6.33724 30.6242  255 255 255
-14.4511 -6.17599 28.0377  255 255 255
52.4742 -5.44828 -6.70796  255 255 255
60.2121 -6.2548 10.4163  255 255 255
60.2055 -6.25637 10.4375  255 255 255
60.3475 -6.38879 9.23355  255 255 255
-6.82235 -6.78064 32.6735  255 255 255
56.7209 -6.10175 2.73198  255 255 255
48.8695 -5.37179 -15.6041  255 255 255
-70.6749 -3.08378 -24.7854  255 255 255
-8.10948 -6.77158 32.2948  255 255 255
52.88 -5.8287 -6.51587  255 255 255
61.0923 -6.81219 11.8673  255 255 255
6.36112 -7.1632 32.0548  255 255 255
56.858 -6.43275 2.7089  255 255 255
64.0575 -7.19169 18.798  255 255 255
-24.1643 -5.92918 11.7458  255 255 255
-7.07319 -7.06776 32.9026  255 255 255
-6.56698 -7.1498 33.015  255 255 255
58.9216 -6.86414 7.12006  255 255 255
60.6115 -7.02772 10.2461  255 255 255
60.409 -7.02295 10.6104  255 255 255
-6.99902 -7.30365 33.0682  255 255 255
60.3374 -7.13007 10.1637  255 255 255
60.3374 -7.13007 10.1637  255 255 255
60.9382 -7.31666 11.7526  255 255 255
-1.68858 -7.63312 33.7803  255 255 255
-16.3365 -7.15874 26.9169  255 255 255
-8.30807 -7.51943 32.666  255 255 255
63.6792 -7.78668 17.5023  255 255 255
-20.9541 -6.78753 17.3415  255 255 255
53.9571 -6.87957 -4.19473  255 255 255
62.2603 -7.77726 14.1304  255 255 255
-8.70473 -7.64786 32.4724  255 255 255
61.1103 -7.74347 11.8348  255 255 255
61.0661 -7.77386 11.8992  255 255 255
47.5156 -6.61095 -19.0256  255 255 255
61.8843 -7.92416 12.9065  255 255 255
5.68364 -8.08207 32.9004  255 255 255
-59.9576 -5.04779 -23.4777  255 255 255
-59.9576 -5.04779 -23.4777  255 255 255
64.9476 -8.35848 20.0607  255 255 255
-42.3736 -5.4615 -23.514  255 255 255
52.3427 -7.35615 -8.5116  255 255 255
58.3371 -7.83102 4.92107  255 255 255
61.2708 -8.24815 11.9867  255 255 255
61.582 -8.2494 12.2876  255 255 255
63.5925 -8.50201 16.7857  255 255 255
47.3701 -7.28032 -19.894  255 255 255
-0.995971 -8.44649 34.5275  255 255 255
47.0699 -7.38775 -20.1339  255 255 255
57.1905 -8.14483 2.75713  255 255 255
-47.0042 -6.00034 -22.2981  255 255 255
57.6159 -8.25292 3.09634  255 255 255
-43.2751 -6.10789 -22.0121  255 255 255
-43.2751 -6.10789 -22.0121  255 255 255
66.0271 -9.05433 22.4975  255 255 255
58.6514 -8.52152 5.30252  255 255 255
66.3891 -9.12677 22.9267  255 255 255
-1.93713 -8.74461 34.5334  255 255 255
56.7104 -8.55069 0.652029  255 255 255
5.04252 -8.89165 33.5202  255 255 255
58.5298 -8.75402 5.11115  255 255 255
65.5251 -9.29694 21.0273  255 255 255
-68.8176 -6.21732 -20.7972  255 255 255
-3.73393 -8.9836 34.5487  255 255 255
57.333 -8.95719 2.11307  255 255 255
48.5502 -8.39123 -17.6908  255 255 255
49.4509 -8.58509 -15.0331  255 255 255
62.7069 -9.39197 13.079  255 255 255
62.4266 -9.41667 13.6298  255 255 255
58.5361 -9.16714 3.82992  255 255 255
58.5248 -9.16635 3.85316  255 255 255
45.8991 -8.45678 -24.36  255 255 255
-26.0467 -8.38673 14.4576  255 255 255
63.0747 -9.63786 13.0817  255 255 255
56.7227 -9.37844 0.345132  255 255 255
56.7287 -9.36779 0.320901  255 255 255
56.7389 -9.36979 0.322958  255 255 255
59.4637 -9.56 6.76632  255 255 255
-5.4619 -9.51563 34.3327  255 255 255
57.7684 -9.6197 2.48121  255 255 255
58.5789 -9.71333 4.39389  255 255 255
58.5293 -9.73232 4.46764  255 255 255
58.5607 -9.71357 4.43561  255 255 255
-41.6765 -7.85344 -20.6267  255 255 255
62.8821 -10.1853 14.559  255 255 255
59.2506 -10.0107 5.41977  255 255 255
63.5086 -10.2299 15.7024  255 255 255
63.5086 -10.2299 15.7024  255 255 255
63.0579 -10.2828 15.2338  255 255 255
59.9312 -10.2581 7.10283  255 255 255
63.4965 -10.6731 15.3338  255 255 255
59.7771 -10.4868 3.74095  255 255 255
59.4523 -10.5561 4.50624  255 255 255
57.7339 -10.5486 1.55902  255 255 255
57.6839 -10.5546 1.64412  255 255 255
59.937 -10.7116 7.19076  255 255 255
-17.306 -10.0381 27.102  255 255 255
-6.85451 -10.2897 34.3495  255 255 255
60.2361 -10.7572 7.27962  255 255 255
60.1972 -10.756 7.34818  255 255 255
63.5036 -10.9289 15.2634  255 255 255
48.1492 -10.3584 -20.4564  255 255 255
-68.7587 -8.65559 -18.4657  255 255 255
-68.7664 -8.65983 -18.4897  255 255 255
-5.16144 -10.4374 34.831  255 255 255
-5.1596 -10.4375 34.8129  255 255 255
46.9414 -10.3694 -23.6997  255 255 255
59.2464 -10.8918 5.28089  255 255 255
59.2639 -10.895 5.25614  255 255 255
-18.3015 -10.2448 25.9764  255 255 255
48.8558 -10.641 -17.976  255 255 255
56.4163 -10.9751 -0.814937  255 255 255
60.4582 -11.0607 7.61078  255 255 255
-15.3723 -10.5212 29.4236  255 255 255
56.559 -11.1225 -1.57919  255 255 255
-2.76854 -10.8399 35.3214  255 255 255
52.2955 -11.0976 -10.9874  255 255 255
-3.34974 -10.8654 35.2961  255 255 255
64.0093 -11.5565 15.9248  255 255 255
64.0093 -11.5565 15.9248  255 255 255
48.1798 -11.0309 -20.1428  255 255 255
56.4398 -11.2196 -2.23903  255 255 255
61.908 -11.4886 10.7722  255 255 255
63.9107 -11.62 15.4034  255 255 255
61.0093 -11.5211 8.54825  255 255 255
66.7065 -11.7357 22.0962  255 255 255
57.53 -11.4633 0.47964  255 255 255
-11.5065 -10.8844 32.4808  255 255 255
59.4335 -11.569 5.0526  255 255 255
59.3792 -11.5751 5.14006  255 255 255
59.8634 -11.599 6.05822  255 255 255
-2.20191 -11.0639 35.3919  255 255 255
56.3163 -11.6151 -2.39803  255 255 255
61.4284 -11.7569 9.58887  255 255 255
61.8618 -11.8135 10.9118  255 255 255
61.9797 -11.7722 10.7933  255 255 255
60.3521 -11.7693 6.94299  255 255 255
56.4211 -11.6734 -2.02719  255 255 255
57.5696 -11.7541 0.622155  255 255 255
61.4874 -11.9914 10.0045  255 255 255
-19.0166 -11.0023 25.0053  255 255 255
47.6833 -11.645 -21.5643  255 255 255
-10.349 -11.2642 33.2338  255 255 255
1.69273 -11.5014 35.3058  255 255 255
1.69273 -11.5014 35.3058  255 255 255
48.537 -11.9475 -20.7628  255 255 255
-56.0815 -10.4507 -16.9128  255 255 255
-56.0815 -10.4507 -16.9128  255 255 255
60.7044 -12.3412 8.0359  255 255 255
60.7312 -12.3293 7.96812  255 255 255
61.3516 -12.3119 7.574  255 255 255
59.4646 -12.3981 4.22439  255 255 255
-50.0983 -10.7963 -16.6268  255 255 255
-21.5913 -11.3625 22.5569  255 255 255
-16.365 -11.4788 28.7259  255 255 255
59.1825 -12.5181 4.15925  255 255 255
59.155 -12.4872 4.14891  255 255 255
64.9086 -12.542 17.4733  255 255 255
-5.42382 -11.6774 35.1688  255 255 255
57.2405 -12.7098 -1.14215  255 255 255
-3.97345 -12.0045 35.4616  255 255 255
59.1058 -12.8204 3.09592  255 255 255
59.4807 -12.8199 4.03966  255 255 255
64.5327 -12.9127 16.024  255 255 255
56.4508 -12.8514 -2.65021  255 255 255
-21.0415 -11.8633 23.2832  255 255 255
60.5777 -13.0764 6.42009  255 255 255
61.5144 -13.0413 8.8676  255 255 255
0.909249 -12.2684 35.5792  255 255 255
61.0584 -13.118 7.98265  255 255 255
59.0273 -13.24 2.85011  255 255 255
59.0273 -13.24 2.85011  255 255 255
-7.08087 -12.2949 34.9582  255 255 255
-81.7935 -11.2466 -14.5641  255 255 255
-14.3202 -12.2955 30.8574  255 255 255
13.8346 -12.6903 29.4863  255 255 255
65.4164 -13.4257 18.0179  255 255 255
65.3909 -13.4284 18.0671  255 255 255
57.7417 -13.4834 -0.501828  255 255 255
57.7158 -13.4797 -0.454642  255 255 255
